1963.6941749573389,10.175596412569115,1949.9546435897564,0.3312107529358882,-0.9435568012258942,0.0
1964.6865914519524,10.51819079903406,1945.8182052542436,0.3215549233985053,-0.9468909289026806,0.0
1965.649918785109,10.84039239700867,1941.6732566065862,0.3129464632433997,-0.9497707676821008,0.0
1966.583961425563,11.143907502930317,1937.520199031954,0.3052271887433269,-0.952279561500637,0.0
1967.4885452773108,11.43017039788944,1933.3594056520822,0.2982709421301907,-0.9544812439648924,0.0
1968.3635175639151,11.70040078788837,1929.191217394865,0.2919757366998737,-0.9564257259079588,0.0
1969.2087446324442,11.95564592433311,1925.015948661956,0.2862581488677398,-0.9581525307626207,0.0
1970.024106829683,12.196811598305027,1920.8339096599188,0.2810492439200787,-0.959693348154478,0.0
1970.8095012712404,12.424688113044253,1916.6453912481454,0.2762915042494936,-0.9610738809683428,0.0
1971.564836861898,12.63996848620214,1912.450689905394,0.2719365591229212,-0.962315181119152,0.0
1972.290041017098,12.843265959867598,1908.2500700474368,0.2679433862559533,-0.9634346587920184,0.0
1972.985049529034,13.035123611728332,1904.0438203359913,0.2642770085611328,-0.964446816960883,0.0
1973.6498158679055,13.216027092373483,1899.8322001624756,0.260907376824108,-0.965363838518288,0.0
1974.2843052702035,13.3864112358024,1895.6154736375022,0.2578085599809213,-0.9661960186217722,0.0
1974.8884963028036,13.546667319424074,1891.393900793689,0.254958063947317,-0.9669521113417332,0.0
1975.4623794598565,13.697148362573468,1887.1677483371727,0.2523362966435448,-0.9676395989190506,0.0
1976.0059618916694,13.838175105974532,1882.9372550927699,0.2499261071759584,-0.9682649125894583,0.0
1976.5192597363255,13.970038000713362,1878.7026900860287,0.2477124614809259,-0.9688335958393788,0.0
1977.0023051541311,14.093002428326775,1874.4643003796036,0.2456821151110675,-0.9693504517534164,0.0
1977.4551427326408,14.20731064967266,1870.2223400169767,0.2438233846198055,-0.969819651849014,0.0
1977.8778328471637,14.313185124280531,1865.9770396284039,0.2421259299881242,-0.9702448320024104,0.0
1978.2704460142177,14.410829216740714,1861.7286627835629,0.2405806070181465,-0.9706291627221904,0.0
1978.6330693631908,14.500430657856144,1857.477443689028,0.2391792978473736,-0.9709754185772356,0.0
1978.9658028775289,14.582162195859226,1853.2236263493644,0.2379148050729365,-0.9712860266302128,0.0
1979.2687620510787,14.656183640443164,1848.9674336415387,0.2367807389537542,-0.9715631125462276,0.0
1979.5420745279143,14.72264225296493,1844.7091141855865,0.2357714429013677,-0.9718085339778648,0.0
1979.7858840774381,14.781674782588048,1840.448889420843,0.2348819042464826,-0.9720239148588607,0.0
1980.0003481531148,14.833407805316163,1836.1869906785823,0.2341076999143181,-0.9722106689606052,0.0
1980.1856391943834,14.877958865209818,1831.9236414075363,0.2334449373485691,-0.9723700227929296,0.0
1980.3419441223475,14.91543708122629,1827.6590719472838,0.2328902099078243,-0.972503033480662,0.0
1980.469465826666,14.94594414880656,1823.3934822554552,0.2324405518825305,-0.9726106054534592,0.0
1980.568421233443,14.969574449075312,1819.1271017320628,0.2320934114341898,-0.9726935017613922,0.0
1980.6390434446892,14.986416069494332,1814.8601235113742,0.2318466141632026,-0.9727523567183268,0.0
1980.6815804932103,14.996550958416115,1810.5927557235868,0.2316983430298551,-0.9727876838433036,0.0
1980.6962961528347,15.000055521291037,1806.325190439397,0.2316471149338619,-0.9727998839138592,0.0
1980.6834698080881,14.99700094824062,1802.0576146708763,0.2316917640526949,-0.9727892507990364,0.0
1980.643396740293,14.987453601711923,1797.7902191058818,0.2318314268305668,-0.9727559763546576,0.0
1980.576388261984,14.971475332997333,1793.5231805128233,0.2320655303091165,-0.9727001540260742,0.0
1980.4827715178849,14.949123687724668,1789.2566567383794,0.2323937842059047,-0.9726217810960536,0.0
1980.3628906801093,14.920452415929988,1784.9908315057905,0.2328161704948592,-0.9725207610925892,0.0
1980.217106270286,14.885511510134782,1780.7258643077598,0.2333329417648111,-0.9723969036804772,0.0
1980.0457954838112,14.84434745913324,1776.4619055045662,0.2339446182115006,-0.9722499244586628,0.0
1979.849352511712,14.79700348062206,1772.1990996786128,0.2346519866702347,-0.9720794438479358,0.0
1979.6281882156616,14.743519578636322,1767.9375746285457,0.2354561039848716,-0.9718849844998456,0.0
1979.382730682901,14.683932794587866,1763.677450792942,0.2363582992287467,-0.9716659685229768,0.0
1979.113427550713,14.61827787618657,1759.4188721570986,0.2373601712201208,-0.9714217153833626,0.0
1978.8207412983788,14.546586219807526,1755.1619242708443,0.2384636140994186,-0.9711514324504926,0.0
1978.505154421121,14.468887203094893,1750.9067155171292,0.2396708084478682,-0.9708542133492264,0.0
1978.1671683364495,14.385207986105453,1746.6533495580252,0.2409842374839956,-0.9705290295937866,0.0
1977.8073017827987,14.295573164825145,1742.4019019904113,0.2424067079490925,-0.9701747203165436,0.0
1977.426092346799,14.200005183183706,1738.1524383359242,0.2439413614813246,-0.9697899835318148,0.0
1977.0240983582246,14.098524839378276,1733.9050297615538,0.2455916865474584,-0.9693733664067602,0.0
1976.6018957005801,13.991150503479654,1729.6597141811758,0.2473615538434216,-0.9689232486013368,0.0
1976.1600851041417,13.877899983884856,1725.4165659898717,0.249255211155671,-0.9684378347172016,0.0
1975.6992808201558,13.758787641321746,1721.175580346112,0.2512773600153031,-0.9679151245557328,0.0
1975.220125318311,13.6338281580297,1716.9368100181955,0.2534331248039262,-0.9673529093625128,0.0
1974.723277786754,13.503033573576095,1712.7002525825148,0.255728138685144,-0.9667487362725806,0.0
1974.2094198114926,13.366414731645492,1708.4658999231779,0.2581685597018064,-0.9660998886147822,0.0
1973.6792588628516,13.22398221041969,1704.2337605034527,0.2607610986751019,-0.9654033609936076,0.0
1973.1335203816218,13.0757441939727,1700.0037906765092,0.2635131078690536,-0.9646558152943426,0.0
1972.57295829166,12.921709283064908,1695.7759742567891,0.2664325859971914,-0.9638535558469706,0.0
1971.998347359758,12.761884420071825,1691.5502578030687,0.2695282791409571,-0.962992474915206,0.0
1971.410488815521,12.596276413126104,1687.3265893709972,0.2728097224550742,-0.9620680097238372,0.0
1970.8102069227755,12.424890973548935,1683.1048889679773,0.2762873376015466,-0.9610750787951216,0.0
1970.198356705148,12.247734921706986,1678.8850987382452,0.2799724761103124,-0.960008027373032,0.0
1969.575815577456,12.064813820836696,1674.6671196204477,0.2838775656469273,-0.9588605361168924,0.0
1968.9434883305878,11.876133409558694,1670.4508428733811,0.2880161921687204,-0.9576255390540872,0.0
1968.3023103734074,11.681700635182784,1666.2361671629353,0.2924032005610423,-0.9562951261517852,0.0
1967.6532442916457,11.481522717324712,1662.0229715203716,0.2970548534673687,-0.9548604159936048,0.0
1966.9972814901191,11.275607728412602,1657.811123070661,0.3019889749542102,-0.9533114176417408,0.0
1966.335441067424,11.063964349427865,1653.6004669652702,0.3072251328937381,-0.9516368623158864,0.0
1965.668776026652,10.846604018788366,1649.3908632769717,0.312784783580531,-0.9498240253649518,0.0
1964.9983690860156,10.623539860057225,1645.1821578875808,0.3186915178389286,-0.9478584896795093,0.0
1964.3253319122487,10.394786666792497,1640.974176562849,0.3249713122034518,-0.945723874206825,0.0
1963.650808750003,10.16036244470807,1636.766747129344,0.3316527681060753,-0.9434015271386716,0.0
1962.9759740564966,9.920288033424145,1632.5596849175918,0.3387674357652397,-0.9408701421902196,0.0
1962.3020326794149,9.674587637391587,1628.3527952488541,0.3463501524156624,-0.9381053096116916,0.0
1961.630224895464,9.423291309143016,1624.1459075836979,0.3544393571937377,-0.9350790031179668,0.0
1960.9618158360536,9.166431796441206,1619.9388136648279,0.363077626547869,-0.9317588942963552,0.0
1960.298102447423,8.90404791983831,1615.731316779365,0.3723120537126853,-0.9281076094183488,0.0
1959.640410138435,8.636184338378012,1611.5232186003818,0.3821947861080433,-0.9240817850557532,0.0
1958.9900919645197,8.362892410615968,1607.3143241283103,0.3927835730169579,-0.91963093943605,0.0
1958.3485270109586,8.084230936492073,1603.1044441693189,0.4041423556371369,-0.9146961005602168,0.0
1957.7171150314073,7.800265412511032,1598.8933756544595,0.4163419492095251,-0.9092081067216752,0.0
1957.0972797256998,7.511071297788874,1594.6809419765636,0.4294605647898237,-0.903085612381465,0.0
1956.490462129189,7.216733252337492,1590.4669721035593,0.4435844603170631,-0.896232573925552,0.0
1955.898116801981,6.917345726805254,1586.2513009168433,0.4588084506454284,-0.8885352022381227,0.0
1955.3217072582074,6.613013399791313,1582.033767741711,0.4752362417577481,-0.8798582354674934,0.0
1954.7627048624568,6.303853810263596,1577.8142451763326,0.4929803084320677,-0.8700404677359688,0.0
1954.2225794332305,5.989995978808402,1573.5926124333953,0.5121614274714825,-0.8588892083443436,0.0
1953.7027948906125,5.671581878084179,1569.3687692398612,0.5329071793095475,-0.8461737045313698,0.0
1953.204802325559,5.348766831075482,1565.142635531012,0.5553491376314837,-0.8316173010056773,0.0
1952.7300330188405,5.021720161293518,1560.9141554482085,0.5796179764040308,-0.8148883367856583,0.0
1952.2798902946854,4.690625362641854,1556.6832961380596,0.6058355596818336,-0.7955898909771287,0.0
1951.855742056115,4.355681038984947,1552.4500576470045,0.6341025746649739,-0.7732489410295053,0.0
1951.4589103155029,4.017099770527665,1548.214457877878,0.6644801856241148,-0.7473058830980402,0.0
1951.090663517289,3.6751091822738537,1543.9765471918863,0.6969632464600685,-0.7171068491402394,0.0
1950.752207453548,3.329952251351759,1539.7364145785446,0.7314430750267596,-0.6819025062246054,0.0
1950.444673639913,2.981884859468678,1535.4941619224792,0.7676584248788249,-0.6408592222263494,0.0
1950.1691124337945,2.631177863413808,1531.2499357439065,0.8051344153644817,-0.5930923816705911,0.0
1949.9264811749254,2.2781132310253835,1527.003888330195,0.8431155936478535,-0.5377323644228861,0.0
1949.717638307998,1.9229869117495213,1522.7562224121052,0.880505095803609,-0.4740366824032473,0.0
1949.5433324156506,1.566103746341308,1518.5071416307724,0.915836122886494,-0.4015522332352719,0.0
1949.4041967856504,1.2077792792932118,1514.2568856922921,0.947309597597892,-0.3203194129285949,0.0
1949.3007419682833,0.8483368646493984,1510.005710609486,0.9729355370909164,-0.2310766986643392,0.0
1949.2333504048374,0.4881054748285167,1505.7538789111404,0.9907918193584088,-0.1353941309379936,0.0
1949.2022726877115,0.1274186518461091,1501.5016643958272,0.99936433359672,-0.0356500874442637,0.0
1949.2076247716677,-0.2333869375130963,1497.2493529049177,0.9978721417580552,0.0652011403519291,0.0
1949.249386672312,-0.5939747808862232,1492.9972219558583,0.98645376773277,0.1640395200121677,0.0
1949.3274027046346,-0.9540089471447812,1488.7455541154397,0.9661332515262764,0.2580436790453605,0.0
1949.4413832540486,-1.3131571197344716,1484.4946194174047,0.9385812952774096,0.3450581866227493,0.0
1949.590907351445,-1.6710907790674925,1480.244690948622,0.9057730395288996,0.4237631424069094,0.0
1949.775428574932,-2.027490538121204,1475.9959984364382,0.8696639513918706,0.4936442156548357,0.0
1949.99427844736,-2.3820425391519,1471.748786858041,0.8319650849394759,0.5548279890575553,0.0
1950.2466755218745,-2.73444478082674,1467.5032555417738,0.7940347414272849,0.6078723792100647,0.0
1950.5317319065111,-3.084405908297234,1463.2595853374225,0.7568644337938198,0.6535719002970987,0.0
1950.8484605462768,-3.4316453819508506,1459.0179481724488,0.7211204537510237,0.6928097077711293,0.0
1951.1957875256905,-3.7758981893916905,1454.778459159313,0.6872079174588265,0.7264607891565125,0.0
1951.5725583235585,-4.116911891687925,1450.54122000604,0.6553374597560906,0.7553362256905426,0.0
1951.9775479273108,-4.454448114607045,1446.306306772756,0.6255827922602369,0.780157785340815,0.0
1952.4094708453326,-4.788283340754273,1442.0737639758468,0.5979262645466619,0.8015511101391324,0.0
1952.8669899331903,-5.118208606067992,1437.8436105627786,0.5722927828862389,0.8200493708651475,0.0
1953.3487273543003,-5.444030771155092,1433.6158239420454,0.548573758703013,0.8361021655649796,0.0
1953.853270045165,-5.765570039913409,1429.3903707252455,0.5266437282384749,0.8500861035842661,0.0
1954.3791808645774,-6.082661695452487,1425.1671817797237,0.5063710606902428,0.862315689811706,0.0
1954.9250025471854,-6.395153395068445,1420.946184229781,0.4876250192810317,0.8730531716746543,0.0
1955.489270803098,-6.70290819716564,1416.7272558529846,0.470279731136535,0.8825174074669283,0.0
1956.0705123913785,-7.005799233200385,1412.5102913928167,0.4542168263315828,0.8908911688176422,0.0
1956.6672615611753,-7.303714793010936,1408.2951257789668,0.4393262725194954,0.8983275718100419,0.0
1957.2780538014897,-7.59655164165898,1404.0816196169844,0.4255070772644029,0.904955096785418,0.0
1957.9014361150894,-7.88421741501147,1399.8696188747238,0.4126670165124872,0.9108819536485958,0.0
1958.5359759577134,-8.166632001499464,1395.6589250481593,0.4007221718585527,0.9161996185226036,0.0
1959.1802571542826,-8.443723233615989,1391.4493487814411,0.3895965601917835,0.9209856243648596,0.0
1959.8328826975762,-8.715426310331052,1387.2407111483803,0.3792215059507551,0.925305922073582,0.0
1960.4924819705004,-8.981685146828685,1383.032814278088,0.3695349307612032,0.9292168395736876,0.0
1961.1577115918844,-9.2424510918113,1378.8254511973505,0.3604807676164615,0.9327666461546782,0.0
1961.82725172329,-9.49768021667668,1374.6184407832513,0.3520084460844401,0.935996823651244,0.0
1962.4998154786158,-9.747335883479224,1370.4115776309202,0.3440722378785318,0.9389431799215856,0.0
1963.1741457532796,-9.991386476610302,1366.204659526778,0.336630819649824,0.9416367087480648,0.0
1963.8490121625239,-10.229803548261827,1361.9975116959977,0.3296468568017481,0.9441043108686284,0.0
1964.5232209895498,-10.462564692468913,1357.7899284328337,0.3230864939633092,0.9463694402391154,0.0
1965.1956023607484,-10.689648467774608,1353.581755415928,0.3169191222174867,0.9484525660110252,0.0
1965.865023567547,-10.911038544092154,1349.3728076533632,0.3111169208914828,0.950371643903059,0.0
1966.530381341676,-11.126720617935856,1345.1629176176484,0.305654641723226,0.9521424473223774,0.0
1967.1906022136309,-11.336682255564254,1340.9519322660922,0.3005093404675684,0.953778871799825,0.0
1967.844645767949,-11.54091366421157,1336.7396905632834,0.2956601177401188,0.9552931983312238,0.0
1968.4914964737509,-11.739404922497467,1332.526073709838,0.2910879713617738,0.9566962908512224,0.0
1969.13017385997,-11.932148989690017,1328.3109367124,0.2867755346961884,0.957997804120508,0.0
1969.7597227708293,-12.119138564440629,1324.0941682861069,0.2827069806740192,0.9592063193485434,0.0
1970.3792167669992,-12.300367058720292,1319.875665566768,0.278867847597985,0.9603294869866628,0.0
1970.987759151442,-12.47582880766299,1315.6553227906838,0.275244901372263,0.961374143748714,0.0
1971.5844778348878,-12.64551752728924,1311.4330623477877,0.2718260483180986,0.9623464030461,0.0
1972.1685313957912,-12.809428018404407,1307.2087878149275,0.2686001938037715,0.9632517510436076,0.0
1972.7390988097463,-12.96755324346602,1302.982452719084,0.265557205502742,0.9640951045439315,0.0
1973.2953866891187,-13.119886381382726,1298.7540049699987,0.2626877869924423,0.964880887242054,0.0
1973.8366261622007,-13.266419944590217,1294.5234045428174,0.2599834195593983,0.9656130806664758,0.0
1974.3620750939983,-13.407146376196216,1290.290600534233,0.2574362836840563,0.9662952757014504,0.0
1974.8710089678445,-13.542055616265936,1286.0555996353003,0.2550392424459005,0.9669307032112596,0.0
1975.3627312324006,-13.67113789124599,1281.8183786196737,0.2527857365060558,0.9675222847144612,0.0
1975.8365650689784,-13.794381526966466,1277.5789467061686,0.2506697748818421,0.9680726542779146,0.0
1976.2918556084164,-13.911773557049608,1273.3373238501254,0.2486858802836736,0.9685841899120252,0.0
1976.7279713342318,-14.023300083037462,1269.0935218416714,0.2468290443574822,0.969059039925624,0.0
1977.1442991673866,-14.128945012881127,1264.8475860665856,0.2450947140834625,0.9694991393128444,0.0
1977.5402487723234,-14.228691161427523,1260.5995490987737,0.2434787422810147,0.9699062336418172,0.0
1977.9152468351176,-14.322518793088433,1256.3494857892492,0.2419773836852032,0.9702818898572024,0.0
1978.2687415302298,-14.41040673633394,1252.0974628495928,0.240587252041564,0.9706275156593742,0.0
1978.6002012580495,-14.49233203239529,1247.843544494152,0.2393053041497472,0.9709443709120502,0.0
1978.9091117371238,-14.568269182441622,1243.5878241809871,0.2381288323240197,0.9712335760341068,0.0
1979.1949783616205,-14.63819068979589,1239.3303909607068,0.2370554388440613,0.9714961239832351,0.0
1979.457325473394,-14.70206682240826,1235.0713300835878,0.2360830249718478,0.9717328878452874,0.0
1979.6956930472747,-14.759864742146815,1230.8107728281514,0.2352097914167461,0.9719446249770048,0.0
1979.9096396582884,-14.811549152904188,1226.5488503094846,0.234434217556109,0.9721319857091704,0.0
1980.0987420918102,-14.857082109834634,1222.2856908419913,0.2337550554785242,0.9722955178536165,0.0
1980.2625947282643,-14.89642276152358,1218.0214213182444,0.2331713267385253,0.9724356700507214,0.0
1980.4008085522994,-14.9295269883372,1213.7561833758982,0.2326823223103272,0.9725527938802464,0.0
1980.5130105515304,-14.956347118447574,1209.4901589288693,0.2322876030483756,0.9726471454078506,0.0
1980.5988464255975,-14.976832413860471,1205.2234588438098,0.2319869905823142,0.9727188885801288,0.0
1980.657976317356,-14.990927867117271,1200.9562759703256,0.2317805848202084,0.9727680918391608,0.0
1980.6900773862064,-14.99857460986582,1196.6887934638016,0.2316687595336531,0.9727947295581624,0.0
1980.6948431480687,-14.999709521821266,1192.4211923092248,0.2316521716164556,0.972798679781886,0.0
1980.6719832042447,-14.994264904133283,1188.1536698924713,0.2317317713907475,0.9727797212771792,0.0
1980.6212227965257,-14.982168079176024,1183.8863983785855,0.2319088161512144,0.9727375293424956,0.0
1980.5423028880998,-14.963341079346636,1179.6195819309778,0.2321848847734007,0.9726716708544374,0.0
1980.4349793485346,-14.937700081374468,1175.3534023779885,0.2325618986667597,0.9725815972392812,0.0
1980.29902481128,-14.905155433459347,1171.0881020069983,0.2330421369197933,0.9724666382040345,0.0
1980.1342258858776,-14.865610521342171,1166.8238757838258,0.2336282717863646,0.9723259898933672,0.0
1979.9403839136612,-14.81896142053207,1162.5609254712558,0.2343233963949819,0.97215870407147,0.0
1979.7173164213737,-14.765096653431945,1158.2994866053587,0.2351310550649967,0.9719636757328032,0.0
1979.4648568484797,-14.70389646016752,1154.0398098237936,0.2360552856550487,0.9717396267078507,0.0
1979.1828491024394,-14.635230721637114,1149.7820788094975,0.2371006881716454,0.9714850815470776,0.0
1978.8711571765853,-14.558960439544808,1145.5265693356623,0.2382724462002554,0.9711983532635065,0.0
1978.5296534514755,-14.47493391501246,1141.2734739604439,0.2395764368086654,0.9708775056236826,0.0
1978.158229216707,-14.38298821409692,1137.0230526023224,0.2410192690138896,0.9705203305258526,0.0
1977.7567882028322,-14.28294632504032,1132.7755445053526,0.2426083994316775,0.9701243036462904,0.0
1977.3252493675548,-14.174616402903798,1128.5312037370957,0.2443522290713868,0.9696865411811408,0.0
1976.8635450334914,-14.05778964962147,1124.2902797473243,0.2462602376104364,0.9692037429622584,0.0
1976.3716179515254,-13.932237643006571,1120.052995903422,0.2483431468202048,0.9686721227677808,0.0
1975.8494277017048,-13.797711735793516,1115.8196089052929,0.2506130736942258,0.9680873345383322,0.0
1975.2969467817065,-13.65393948909313,1111.5903720753895,0.2530837611603997,0.9674443704094338,0.0
1974.7141617992047,-13.50062196171232,1107.3655459508323,0.2557708312029749,0.9667374420729442,0.0
1974.1010690892356,-13.337428999107257,1103.1453682916367,0.2586921181342338,0.9659598273299068,0.0
1973.4576825175784,-13.163997093776294,1098.9301104829035,0.2618680131113584,0.9651036958322714,0.0
1972.7840293279507,-12.97992332456349,1094.7200456495425,0.2653219487839954,0.9641598744469004,0.0
1972.08014525124,-12.78475802033602,1090.5154206570812,0.2690810019322391,0.9631175496268056,0.0
1971.346084623838,-12.578000319269409,1086.3165191442824,0.2731765590850017,0.9619639117796877,0.0
1970.5819130849743,-12.359087409707293,1082.123615770401,0.2776452554248862,0.960683669133628,0.0
1969.7877055479576,-12.12738312696607,1077.9369682458787,0.2825301341605067,0.9592584236227724,0.0
1968.9635620576316,-11.882169265298549,1073.7569001687414,0.2878820149122391,0.957665884058772,0.0
1968.1095871198452,-11.622622896205227,1069.583690725068,0.2937615210322107,0.9558787416617456,0.0
1967.225903261186,-11.347799188481304,1065.4176458617846,0.3002414949814409,0.9538632211650208,0.0
1966.312652529651,-11.056604881639473,1061.2591011580228,0.3074103081431593,0.9515770606983588,0.0
1965.3699888324816,-10.747760591027316,1057.1083844248851,0.3153764212785347,0.9489666553159518,0.0
1964.398097960564,-10.41976066451523,1052.9659015068821,0.3242744147931947,0.9459630563137924,0.0
1963.3971755588589,-10.070802991747842,1048.8320353212866,0.334273880071642,0.9424759801193076,0.0
1962.367457849751,-9.69871264726194,1044.7072710290254,0.34559163378183,0.9383850076914088,0.0
1961.309212309218,-9.300816385349036,1040.592146090098,0.3585101960050558,0.9335258107628396,0.0
1960.22275294474,-8.87376984989959,1036.4873003648158,0.3734055453383726,0.927668205076876,0.0
1959.1084680208314,-8.413300091154115,1032.3935631589086,0.3907905502248532,0.9204796281585792,0.0
1957.9668258734034,-7.913786219827167,1028.3119491795576,0.4113864927698191,0.9114609994764162,0.0
1956.7984521704104,-7.36759409117859,1024.243900774825,0.4362446478786041,0.8998280986928964,0.0
1955.604214418305,-6.763882520473482,1020.1915181425238,0.4669680310053824,0.8842741984356187,0.0
1954.3854321233623,-6.086331467416889,1016.1581669824551,0.506143977157829,0.8624489981366175,0.0
1953.1443483299643,-5.308242494666349,1012.1498346156988,0.5582708932927409,0.8296587308659656,0.0
1951.885520814481,-4.3800330270956565,1008.1791684012558,0.6319875676843906,0.7749785250523835,0.0
1950.653527882557,-3.222365561356574,1004.3797326053243,0.7424999974925532,0.6698460671852589,0.0
1949.7820102278877,-2.0390526146895738,1001.7407917564144,0.8684545055298433,0.4957688693584092,0.0
1949.2986217351174,-0.8393622699675003,1000.2937911982888,0.9734826863331808,0.2287607033769879,0.0
1949.218864747574,0.3671035827687851,1000.0561604195085,0.9947600068071576,-0.1022376097970978,0.0
1949.5453082691147,1.5706036888685528,1001.0307745040409,0.9154114938733392,-0.4025193124367844,0.0
1950.2674575197755,2.7614578861347288,1003.2058647426054,0.7911378791777536,-0.6116378472021872,0.0
1951.3622852327671,3.930244920050207,1006.5553835403913,0.6725619689773359,-0.7400408082567671,0.0
1952.6257467610037,4.946986802480936,1010.5028173714245,0.5853883561297868,-0.8107530280595109,0.0
1953.874944681296,5.77898226913781,1014.4977689983291,0.5257596074320947,-0.8506331966205232,0.0
1955.103302553022,6.493975486029517,1018.5217490273005,0.4819382745557978,-0.8762051697622997,0.0
1956.307881859521,7.125793361721521,1022.5667737674768,0.4481144784153235,-0.8939761821405325,0.0
1957.4870703256163,7.694202924190493,1026.6286521317188,0.421069265289334,-0.9070284856765528,0.0
1958.6398489056862,8.211937689729247,1030.7048629125266,0.3988639087609688,-0.9170101320530332,0.0
1959.7655073083529,8.687769727268646,1034.79373566431,0.3802543992070185,-0.9248819340238564,0.0
1960.8635169676002,9.128047400035404,1038.8940893501074,0.3644020350773275,-0.9312417284634008,0.0
1961.9334666098778,9.537541721760082,1043.0050519885929,0.3507185458260544,-0.9364809136408804,0.0
1962.97501164358,9.919941503296544,1047.1259033575318,0.3387779116401981,-0.940866370206049,0.0
1963.9878648412855,10.278171503722534,1051.2560594121087,0.3282630880010753,-0.9445863354167252,0.0
1964.9717827076763,10.614597152881602,1055.395035300811,0.3189327122575789,-0.9477773604871688,0.0
1965.9265483772083,10.93116096165828,1059.5423857067403,0.3105995041680685,-0.950540871299362,0.0
1966.8519768441413,11.229483940962508,1063.69773490853,0.3031156056302876,-0.9529537919665276,0.0
1967.7479035752426,11.510933331647768,1067.8607346464817,0.296362613343853,-0.9550754951374272,0.0
1968.6141737384137,11.77667201053816,1072.0310156999785,0.2902445397943717,-0.9569525103784166,0.0
1969.4506646536552,12.027704919042058,1076.2082974577431,0.2846825273149304,-0.9586218538305832,0.0
1970.257256962065,12.26490030219374,1080.392252191598,0.2796112942599056,-0.960113287129337,0.0
1971.0338544791755,12.4890190942127,1084.582603917123,0.2749761923996039,-0.9614510354736824,0.0
1971.7803704710136,12.70072917403969,1088.7790598318134,0.2707311722144465,-0.9626549913605555,0.0
1972.4967337326714,12.90062175256572,1092.9813421265162,0.2668371142944259,-0.9637416429910164,0.0
1973.1828900198464,13.089223452110422,1097.1891995071126,0.2632605588559406,-0.9647247680819944,0.0
1973.8387899264983,13.26700250762852,1101.4023328529859,0.2599727750908972,-0.9656159465395846,0.0
1974.464405708952,13.434381202099532,1105.6204982444888,0.2569488855293821,-0.9664249946194524,0.0
1975.0597209318141,13.591739454780877,1109.8434451532273,0.2541672905042328,-0.9671602702953306,0.0
1975.6247301528663,13.739420148956,1114.0709108342153,0.2516091588819767,-0.9678289266015476,0.0
1976.1594387853786,13.877733634244764,1118.3026141524037,0.2492580133004856,-0.9684371135006624,0.0
1976.663872062047,14.006963841005918,1122.5383259130867,0.2470993521613364,-0.9689901496720428,0.0
1977.1380640680286,14.127368657537728,1126.777783259833,0.2451204190639747,-0.9694926405898612,0.0
1977.5820645593199,14.239184446296086,1131.0207432419659,0.2433099411501806,-0.9699485927292724,0.0
1977.9959383545026,14.342628232648917,1135.2669819089315,0.2416579392603406,-0.970361499850672,0.0
1978.3797567225781,14.437897599266892,1139.5162005398136,0.2401555998176474,-0.9707344064553528,0.0
1978.733615292632,14.525176909309558,1143.7682144798607,0.2387950676368686,-0.9710699849507776,0.0
1979.0576163332278,14.60463442474668,1148.0227618821752,0.2375694006275747,-0.9713705677471676,0.0
1979.351878656063,14.676426102742106,1152.2796097329306,0.2364724330873377,-0.971638198296956,0.0
1979.6165349052653,14.74069609039847,1156.5385210683582,0.2354987031189056,-0.9718746631275628,0.0
1979.8517322349846,14.797577915107292,1160.799260890711,0.2346433791309107,-0.97208152159684,0.0
1980.0576325967131,14.847195454454347,1165.061598733399,0.2339021982197797,-0.972260130658434,0.0
1980.234413245666,14.889663851938574,1169.3253195243806,0.2332714125626678,-0.9724116659527576,0.0
1980.3822663781027,14.925090131673274,1173.5902204358313,0.2327477464035159,-0.9725371389022038,0.0
1980.5013975142692,14.953573435555844,1177.8560507154361,0.2323283637795002,-0.972637410026748,0.0
1980.5920293094573,14.975206488707778,1182.122619303355,0.2320108226790483,-0.9727132044748809,0.0
1980.6543993219232,14.990075555379576,1186.3897478965182,0.2317930554488113,-0.9727651203891432,0.0
1980.6887595948242,14.998260777687726,1190.6572055697832,0.2316733469243566,-0.9727936370705076,0.0
1980.6953785571832,14.99983701804383,1194.9247866991882,0.2316503082709268,-0.9727991234977468,0.0
1980.6745402635054,14.994874024393036,1199.1923425780049,0.2317228634720833,-0.9727818432435394,0.0
1980.6265445634851,14.983436779504116,1203.4596675296034,0.2318902355748554,-0.9727419589207807,0.0
1980.5517073557003,14.965585836253922,1207.7265913143142,0.2321519353863453,-0.9726795355595664,0.0
1980.4503610989516,14.941377684157372,1211.992932320617,0.23250775177805,-0.972594543148951,0.0
1980.322854774821,14.91086495806424,1216.2585209749702,0.2329577462305889,-0.9724868577369898,0.0
1980.1695541251418,14.874096687916282,1220.5231943193007,0.2335022486103423,-0.9723562618165802,0.0
1979.9908402048513,14.83111812080958,1224.786832999177,0.2341418610816626,-0.9722024423386392,0.0
1979.7871124103074,14.781971596547391,1229.0492848344877,0.2348774481340528,-0.972024991632435,0.0
1979.5587871828386,14.726696368751684,1233.3104129212938,0.235710143899646,-0.9718234037430916,0.0
1979.3062982521685,14.66532877704859,1237.5700921410228,0.236641356029591,-0.9715970711238668,0.0
1979.0300964580658,14.597902300409736,1241.8282141203754,0.2376727731468194,-0.9713452799621256,0.0
1978.7306537546533,14.524448621541678,1246.0846331320333,0.2388063585199886,-0.9710672083488469,0.0
1978.4084544380607,14.444995548351567,1250.339297537505,0.2400443940044336,-0.970761911545279,0.0
1978.064005073164,14.359569500560092,1254.5921077595399,0.2413894557974843,-0.970428323282969,0.0
1977.6978285992766,14.268194106336002,1258.8430035420151,0.2428444522989944,-0.9700652410985569,0.0
1977.3104719610287,14.170892140990968,1263.091878215092,0.2444126116757794,-0.9696713233120924,0.0
1976.9024989955665,14.067683789436629,1267.3386687946818,0.2460975300681614,-0.9692450699871268,0.0
1976.4744911859032,13.95858683424992,1271.583344406577,0.2479031926674052,-0.96878480947283,0.0
1976.0270522133221,13.843617816485663,1275.825863267357,0.2498339812970508,-0.96828868721537,0.0
1975.5608045537438,13.722791171288955,1280.0662114411562,0.2518947184698002,-0.9677546439087856,0.0
1975.0763960482286,13.59612092729147,1284.3043472423853,0.2540906717319898,-0.9671804022718752,0.0
1974.5744965640001,13.463619863509036,1288.540239790179,0.2564276043575536,-0.9665634400924992,0.0
1974.0557903781025,13.325297464355932,1292.77393405856,0.2589118537531475,-0.965900953507195,0.0
1973.5209883082468,13.18116308324262,1297.0054506256067,0.2615503230153016,-0.96518984066897,0.0
1972.970831186484,13.031226929512249,1301.234768962811,0.2643505127392391,-0.964426672388576,0.0
1972.4060710543029,12.875494945600195,1305.4619774038151,0.2673206742060514,-0.96360762613318,0.0
1971.8274938945167,12.713974968866076,1309.6871013148618,0.2704697599251704,-0.9627284710477928,0.0
1971.2359092492277,12.54667392973814,1313.9101893828379,0.2738075473216327,-0.9617845013461758,0.0
1970.6321488741894,12.373597436476995,1318.1313256940903,0.2773447293398929,-0.9607704726454608,0.0
1970.0170732279876,12.194751611756452,1322.3505874953814,0.281092968950829,-0.9596805420588708,0.0
1969.3915680696648,12.010142147271493,1326.5680737129956,0.2850650200053435,-0.9585081816913996,0.0
1968.756550608415,11.81977615730792,1330.7838675643243,0.2892748014354929,-0.9572460964947604,0.0
1968.1129626985648,11.623660235823875,1334.998086443745,0.2937375667264014,-0.95588610299222,0.0
1967.4617723693843,11.421800924713663,1339.210874031983,0.2984700400869232,-0.954419003986462,0.0
1966.8039812332304,11.214207102371988,1343.4223556482598,0.3034905228034917,-0.9528344570640084,0.0
1966.1406168661883,11.00088777044076,1347.632690742462,0.3088191265735779,-0.951120784686326,0.0
1965.4727413113455,10.781854930526816,1351.8420209990024,0.3144779076745463,-0.9492647921337014,0.0
1964.8014470318328,10.557122583055298,1356.0504983834485,0.3204911184797374,-0.9472515204398496,0.0
1964.1278562154905,10.32670677609326,1360.258290456231,0.3268854644631507,-0.945063962450537,0.0
1963.4531172066954,10.09062466080919,1364.4656027792046,0.3336904240630884,-0.9426827148561684,0.0
1962.7784180194967,9.848899620098678,1368.6725941019383,0.3409384279240485,-0.9400856282087704,0.0
1962.1049720527915,9.601556858245887,1372.879463782305,0.3486653467502191,-0.9372472864594218,0.0
1961.4340266414574,9.34862705534411,1377.0863953077876,0.356910789335847,-0.9341384739189704,0.0
1960.7668566050777,9.090144766312774,1381.293591985256,0.3657186028801422,-0.9307254716120092,0.0
1960.104769241152,8.826151214797994,1385.5012391156174,0.3751372789700084,-0.9269692669808304,0.0
1959.4490973032243,8.556692635586964,1389.709539767501,0.3852205553004598,-0.9228245357455584,0.0
1958.8011986317345,8.281821220326615,1393.9187070427033,0.3960279811855267,-0.918238442953744,0.0
1958.1624621640667,8.00159915795281,1398.12891130442,0.4076253876828759,-0.9131492448205744,0.0
1957.534293801849,7.71609430651009,1402.340355501172,0.4200857104454669,-0.9074844328579568,0.0
1956.9181218337428,7.425384357041759,1406.553220447684,0.4334894763375725,-0.9011586286024104,0.0
1956.3153936398776,7.129557722248706,1410.7676618747605,0.4479253579372074,-0.8940709556387706,0.0
1955.7275630002132,6.828709847604629,1414.9838710737681,0.4634908496099353,-0.8861017054085045,0.0
1955.1561014901229,6.522951787347903,1419.2019615961758,0.4802921086731007,-0.8771085966665396,0.0
1954.6024777206328,6.212402934193026,1423.4220794707937,0.4984442044075877,-0.8669217814154209,0.0
1954.068160541738,5.8971961023898,1427.6443388039245,0.5180701028712156,-0.8553381603266675,0.0
1953.5546080788342,5.577475366433399,1431.8688571532418,0.539299041670094,-0.8421143293245391,0.0
1953.063270738402,5.253402738935883,1436.095672639726,0.5622627809828893,-0.8269586235848728,0.0
1952.5955717003953,4.925151300691157,1440.3248395854366,0.587090416845087,-0.8095213662706265,0.0
1952.1529022431932,4.592907075024742,1444.5564052982952,0.6138992702918803,-0.7893843714788741,0.0
1951.7366214403714,4.2568755460612,1448.7903290620945,0.6427804602963711,-0.7660504421127796,0.0
1951.3480347879677,3.917272458808977,1453.0265996043058,0.6737790140699617,-0.7389329064258204,0.0
1950.9883918252644,3.5743284826288773,1457.265173505772,0.7068639708718559,-0.7073495081522798,0.0
1950.6588785798906,3.228291166405671,1461.5059484968394,0.7418875541622831,-0.6705243149797818,0.0
1950.360604852615,2.879421975999437,1465.748795677448,0.7785325668123283,-0.6276042084089363,0.0
1950.0945936178066,2.527993899756329,1469.9935814772075,0.8162490739853202,-0.5777001378034344,0.0
1949.8617750114051,2.1742941930028143,1474.2401255154937,0.8541869346788804,-0.519966037952382,0.0
1949.6629757237915,1.818621133396308,1478.4882294993688,0.8911417259714265,-0.4537250535651156,0.0
1949.498911333661,1.461282943115637,1482.7376777483416,0.9255413849340872,-0.3786464640984933,0.0
1949.3701792255201,1.1025959560549854,1486.9882451234116,0.9555111185440176,-0.2949550852905574,0.0
1949.2772536506761,0.7428867794066918,1491.239656320934,0.9790489856360832,-0.2036248602822266,0.0
1949.2204788469635,0.3824862912513956,1495.4916406670595,0.994315480173632,-0.1064740620389748,0.0
1949.2000660901133,0.0217285813269986,1499.7439270861569,0.9999814975946776,-0.0060831298116479,0.0
1949.216091592099,-0.3390491277920812,1503.996227029038,0.9955251342045428,0.0944971278242225,0.0
1949.2684952560712,-0.6995091032714431,1508.248247017707,0.9813582622760488,0.1921873072357629,0.0
1949.3570819999482,-1.0593179584662349,1512.499727531456,0.9587260956392232,0.2843312742917506,0.0
1949.4815235708627,-1.4181445657446008,1516.7504003910522,0.9294252305096524,0.3690104888645842,0.0
1949.6413618981128,-1.7756629915731623,1521.0000059189879,0.8954551289895022,0.4451517853119249,0.0
1949.8360126402335,-2.131552321353625,1525.248274005039,0.8587179261186704,0.512448556796143,0.0
1950.0647754540275,-2.485505914237413,1529.49501908719,0.8208272729707763,0.5711764945683241,0.0
1950.3268356550632,-2.837222622717163,1533.7400214313338,0.7830325154483533,0.6219807712064936,0.0
1950.621275631162,-3.186414566580003,1537.983107527651,0.7462240083330582,0.6656949221582992,0.0
1950.947081871878,-3.532805701171362,1542.2241222474272,0.710984477017598,0.7032077029157264,0.0
1951.303155762963,-3.876134541223503,1546.4629531532034,0.6776554714954833,0.7353795359895692,0.0
1951.6883209928455,-4.2161526410508685,1550.6995048967942,0.646402067065544,0.762996964406407,0.0
1952.1013344301878,-4.552626476623625,1554.9337171446412,0.6172669911928842,0.7867537490115212,0.0
1952.540893871472,-4.885336282624625,1559.165546546068,0.5902127834039411,0.8072477131008625,0.0
1953.0056524222075,-5.214079927575485,1563.3950145387926,0.5651522636642339,0.8249866173915745,0.0
1953.4942171941589,-5.5386653699940815,1567.6221107824035,0.5419707067088163,0.8403973780715562,0.0
1954.005167628872,-5.8589176687126665,1571.8468841244592,0.5205398814530225,0.8538373567705227,0.0
1954.5370601267055,-6.17467596559948,1576.0694072312972,0.5007278284087601,0.8656047838690862,0.0
1955.0884380599603,-6.485794430202192,1580.2897938822289,0.4824047817369571,0.8759484154659558,0.0
1955.6578311014482,-6.792137434635071,1584.5081390180387,0.4654469960812707,0.8850757559886734,0.0
1956.243768395412,-7.093583049117339,1588.7245714970086,0.4497384400243509,0.893160307875615,0.0
1956.8447791676635,-7.390019700853013,1592.9392147953386,0.4351718351748695,0.9003474184283177,0.0
1957.459407897166,-7.681350477968116,1597.152255959319,0.4216486276799308,0.9067593036609168,0.0
1958.0862087822825,-7.967487307076856,1601.3638721389398,0.4090790544822131,0.9124989464015498,0.0
1958.7237485675466,-8.24835006709894,1605.5742242340075,0.3973816907128276,0.9176534159944126,0.0
1959.3706178105333,-8.523869484218867,1609.7835083327273,0.3864827276674968,0.9222966449113276,0.0
1960.0254282253775,-8.793983902932716,1613.9919170787123,0.3763154664637689,0.9264915918129836,0.0
1960.6868129379352,-9.058637862580357,1618.1996254253072,0.3668197106024764,0.9302920508708624,0.0
1961.3534409494032,-9.317786420727783,1622.4068688146085,0.3579409806583785,0.9337442124936134,0.0
1962.0240010314867,-9.571387431751086,1626.6138295624642,0.3496301961474972,0.9368877872733012,0.0
1962.697212356253,-9.819404807318154,1630.8206960866305,0.341843000994903,0.9397570764143244,0.0
1963.3718228325765,-10.061806962977272,1635.0276455920239,0.334539311768666,0.9423817957077416,0.0
1964.0466198571423,-10.29856983296516,1639.2349061426046,0.3276827753724331,0.9447878061894214,0.0
1964.7204103453537,-10.529669102332686,1643.4426289253997,0.3212405893290454,0.9469976155025563,0.0
1965.3920376442534,-10.755085723560471,1647.650991731235,0.315182967659322,0.9490309251533708,0.0
1966.060381410541,-10.974805223854812,1651.8601978724341,0.3094828405574862,0.9509050275398008,0.0
1966.7243421284063,-11.188812228284238,1656.0703791680758,0.3041157039299479,0.9526351025566884,0.0
1967.3828599386468,-11.397096370861671,1660.2817156447163,0.2990592035855441,0.9542345585603048,0.0
1968.0349004345094,-11.599647407530409,1664.494347779123,0.2942930281426923,0.9557152366613209,0.0
1968.6794603196477,-11.79645686884344,1668.7084147030064,0.2897986595886157,0.957087632821907,0.0
1969.3155621195926,-11.987516293704866,1672.9240224493105,0.2855592298283376,0.958361062574981,0.0
1969.9422627104227,-12.172819691328012,1677.1413034556927,0.2815593018458093,0.9595438288812556,0.0
1970.5586435494529,-12.352360497346416,1681.3603559304752,0.2777847924734584,0.960643330831208,0.0
1971.1638093368176,-12.526131204401912,1685.5812364481887,0.2742228473270001,0.9616661738898136,0.0
1971.7569063017781,-12.69412854012939,1689.8040924810352,0.2708616202433449,0.9626182954209576,0.0
1972.3370899869808,-12.856344215775092,1694.028941085088,0.2676903589006921,0.963504993111929,0.0
1972.9035545443596,-13.012773254624411,1698.2558805978101,0.2646991445430739,0.9643310442364514,0.0
1973.4555112440023,-13.163407934472806,1702.484940552316,0.2618789298474339,0.9651007336552816,0.0
1973.9922035215056,-13.308241954020671,1706.7161988480311,0.2592213854789906,0.9658179296898316,0.0
1974.5128881225007,-13.447265317718504,1710.9496402555797,0.2567189294565433,0.966486105052052,0.0
1975.0168523985492,-13.580469039106696,1715.1852955173595,0.2543645812825443,0.9671084012606632,0.0
1975.5034040822839,-13.707842387218156,1719.4231657436665,0.2521519601076705,0.9676876505432214,0.0
1975.971873865392,-13.829373591233011,1723.6632476501245,0.2500752248165724,0.9682264104706816,0.0
1976.4216123814438,-13.945049065884971,1727.9055108452678,0.2481290451750633,0.9687269878250072,0.0
1976.8519932548604,-14.054854208223164,1732.1499297965768,0.2463085505294304,0.9691914660871148,0.0
1977.262411599585,-14.15877299996492,1736.39647667096,0.2446093031877267,0.9696217245885196,0.0
1977.6522818489848,-14.256787452251832,1740.6451043412821,0.2430272774435911,0.9700194546597278,0.0
1978.0210356630482,-14.348877082123916,1744.895724008461,0.2415588408026276,0.9703861738658948,0.0
1978.368132511958,-14.435021532103791,1749.1483338513985,0.240200688512561,0.9707232505910692,0.0
1978.6930413153145,-14.515195964790756,1753.402809434775,0.2389498956723097,0.97103189821869,0.0
1978.99525387318,-14.589374381944214,1757.65906186993,0.237803845639507,0.9713131992303315,0.0
1979.274281965984,-14.657528843379383,1761.917015899928,0.2367602264436672,0.9715681114437338,0.0
1979.5296508313775,-14.719627818890418,1766.1765124150525,0.2358170417800575,0.9717974700554136,0.0
1979.7609088366269,-14.77563848033825,1770.437461007005,0.2349725637833713,0.9720020032227658,0.0
1979.9676209476545,-14.825525020882266,1774.699751016653,0.234225348590648,0.972182331704084,0.0
1980.1493688713442,-14.869248598186322,1778.9632533847207,0.2335742286269876,0.9723389736718916,0.0
1980.3057507209444,-14.90676714491596,1783.2278090831865,0.2330183087038677,0.9724723480946844,0.0
1980.436383627291,-14.938035866119094,1787.493307711576,0.2325569537507947,0.9725827796450802,0.0
1980.5408993413866,-14.963006037224943,1791.7595722682136,0.232189803427145,0.972670496717395,0.0
1980.6189467681038,-14.981625445012376,1796.0264192810037,0.231916764108627,0.9727356344482212,0.0
1980.6701919380491,-14.99383818965104,1800.2936770182728,0.2317380121605875,0.9727782346043004,0.0
1980.6943173271889,-14.99958430777684,1804.5612154333116,0.231654001636511,0.9727982439981024,0.0
1980.6910205657389,-14.998799224154508,1808.828838439882,0.2316654763792821,0.9727955114277412,0.0
1980.6600159992781,-14.991413852430414,1813.0963029612444,0.2317734746929562,0.972769785935374,0.0
1980.6010328798109,-14.977353859582417,1817.3634952417194,0.2319793484673229,0.9727207111420402,0.0
1980.5138169001227,-14.956539689388446,1821.6301728097192,0.2322847736327817,0.9726478211245668,0.0
1980.3981291286764,-14.928885925044158,1825.8961289766626,0.232691772962019,0.9725505327723554,0.0
1980.2537470862499,-14.894301116447089,1830.1611238357107,0.2332027350409748,0.9724281384089052,0.0
1980.080461512734,-14.85268652236332,1834.4249766527735,0.233820452648702,0.9722797930241872,0.0
1979.8780771604825,-14.803935750846662,1838.6875051054449,0.2345481518917928,0.972104502841204,0.0
1979.6464184617014,-14.747935512666828,1842.9484231998517,0.2353895089488135,0.9719011158944292,0.0
1979.3853185574887,-14.68456228305974,1847.2075619526508,0.2363487331670747,0.9716682954230412,0.0
1979.0946292912156,-14.61368392976668,1851.4646699758566,0.2374305818352778,0.9714045083328372,0.0
1978.7742159213174,-14.53515754946987,1855.719513936122,0.2386404387711554,0.9711079965601715,0.0
1978.42396090891,-14.448829390058732,1859.97182437429,0.2399843695117498,0.9707767520856934,0.0
1978.0437544809843,-14.354531377705465,1864.2214085058154,0.2414692390309155,0.9704084740983204,0.0
1977.6335078898765,-14.2520830754071,1868.4679884043064,0.2431027565878787,0.9700005411026196,0.0
1977.1931365917721,-14.141285992704942,1872.7113840171887,0.2448936550084269,0.9695499459731888,0.0
1976.7225808729713,-14.021927011337956,1876.9513006335296,0.2468517418751868,0.9690532583574476,0.0
1976.2217898425513,-13.893772388654057,1881.1874925586071,0.2489881218401178,0.9685065385337006,0.0
1975.6907252483588,-13.756566377296473,1885.41971834648,0.2513153712000435,0.9679052557965496,0.0
1975.1293676601256,-13.610030133031373,1889.6476929453493,0.2538477368305721,0.9672441917664828,0.0
1974.537700993241,-13.453854520934383,1893.8712051717735,0.2566014785641213,0.9665172948264852,0.0
1973.915730053498,-13.287700951243467,1898.0899824979406,0.2595951219263769,0.9657175429037362,0.0
1973.2634730403888,-13.111195045924608,1902.3037514633957,0.2628498939741831,0.964836739162518,0.0
1972.580961892577,-12.923921483825902,1906.5122347965253,0.2663902170580967,0.9638652666507598,0.0
1971.868232223161,-12.725414882989323,1910.7152093711616,0.270244377529088,0.9627917617085824,0.0
1971.1253428793736,-12.515157537743006,1914.9123859621589,0.274445191010349,0.961602743928746,0.0
1970.35236275627,-12.292566511518402,1919.1034915272685,0.2790310360120572,0.9602820840472022,0.0
1969.549372403163,-12.056982587077776,1923.2882571388195,0.2840470772425568,0.95881033469084,0.0
1968.716474904485,-11.807659276881049,1927.46636290764,0.2895467763612463,0.9571638649148904,0.0
1967.8537848738956,-11.54374184105364,1931.6374985993252,0.2955940118704092,0.9553136553752156,0.0
1966.9614222579728,-11.264242551338889,1935.8013897460232,0.3022658443372198,0.9532236670095364,0.0
1966.0395323504208,-10.968017561451983,1939.9577023449747,0.309656007240643,0.9508486510374734,0.0
1965.0882864767684,-10.65372923057526,1944.1060488993435,0.317879814608618,0.9481310159805928,0.0
1964.107868353784,-10.319790916115686,1948.2460529030886,0.3270810995069685,0.944996272133024,0.0
1963.0984869762058,-9.964302099809563,1952.3772946931595,0.3374417654228981,0.9413464053940386,0.0
1962.0603812581494,-9.584954283297591,1956.4992991087297,0.3491957001338598,0.9370498188506432,0.0
1960.9938360153535,-9.17890058965021,1960.611482164023,0.3626493177842009,0.9319256796068308,0.0
1959.8991835030129,-8.742556385271323,1964.7131599684424,0.3782132594328822,0.9257184941380155,0.0
1958.7768253778943,-8.271302575370571,1968.8034827414513,0.3964524958914056,0.9180552371733822,0.0
1957.6272840958136,-7.759021250097711,1972.8812761338688,0.4181689196171341,0.9083692832027284,0.0
1956.4512345057688,-7.197291608694641,1976.94497434349,0.4445461506646924,0.8957559488662102,0.0
1955.2496468522445,-6.573976323407457,1980.992192388122,0.4774165093213894,0.8786771173914681,0.0
1954.0240374761372,-5.870410353642645,1985.01901052523,0.5197963439716266,0.8542902087661608,0.0
1952.777113769142,-5.055097080008234,1989.018109007753,0.5770682148504265,0.8166959504058668,0.0
1951.5147527682766,-4.066449936784688,1992.9730244897742,0.6599402917447986,0.7513180493850723,0.0
1950.377964072814,-2.900875875518281,1996.4589305089057,0.7762493322623577,0.6304260259239332,0.0
1949.610351617969,-1.7121475902693026,1998.7744006163332,0.9017546143668724,0.4322483261599203,0.0
1949.2363585010883,-0.5096430536648087,1999.8917449477185,0.989973722814249,0.1412516482639993,0.0
1949.2680004778172,0.6969780580525774,1999.797479994486,0.9814892057977964,-0.1915174637008615,0.0
1949.7042582737781,1.8979712967543092,1998.49274630168,0.8830734419664941,-0.4692347984681542,0.0
1950.531129346048,3.083708038357386,1995.9932730032415,0.7569375850235447,-0.6534871784348367,0.0
1951.7223349718072,4.244871076351705,1992.328891232591,0.6438453259253102,-0.7651556680075832,0.0
1952.9828524846694,5.198437499610495,1988.3647754767912,0.5663080151178267,-0.8241936859824317,0.0
1954.2265628624057,5.992370853703099,1984.3603516983344,0.5120116691607722,-0.8589784925382009,0.0
1955.4483744383422,6.681079620383674,1980.3298139919484,0.4714751240329124,-0.8818793610342345,0.0
1956.645864254587,7.293242952809565,1976.2796618821785,0.4398351091734331,-0.8980785470872767,0.0
1957.8176297110035,7.846157801623763,1972.2134950218415,0.4143258114546929,-0.9101286293499452,0.0
1958.9627531821684,8.351207580051856,1968.133557954177,0.3932482091116926,-0.9194323498933712,0.0
1960.080600160031,8.816364749329574,1964.0413024455768,0.3754950090232833,-0.9268244160565714,0.0
1961.170663690846,9.247455257609037,1959.9378688763272,0.3603110279397583,-0.932832226686554,0.0
1962.2325606061631,9.648904333149842,1955.8240558473422,0.3471610823571708,-0.9378055144306828,0.0
1963.2659743731458,10.024161033630715,1951.7005003133302,0.335654368290892,-0.9419852148771988,0.0
1964.2706226851471,10.375970354960542,1947.567788216803,0.3254982443526247,-0.9455426446878844,0.0
1965.2462743999877,10.70656680476572,1943.4263737450628,0.3164685229648517,-0.9486030117875682,0.0
1966.1927177877494,11.017791416442533,1939.276699411444,0.3083904234392302,-0.9512598733947376,0.0
1967.109768553138,11.311185132490746,1935.119157643746,0.3011253731536333,-0.9535845582029342,0.0
